# .PCD v0.7 - Point Cloud Data file format
VERSION 0.7
FIELDS x y z
SIZE 4 4 4
TYPE F F F
COUNT 1 1 1
WIDTH 1432
HEIGHT 1
VIEWPOINT 0 0 0 1 0 0 0
POINTS 1432
DATA ascii
-0.87856001 -0.39973 -1.4758
-0.87458003 -0.39640999 -1.4636
-0.87380505 -0.365385 -1.46735
-0.88316 -0.35510999 -1.4668
-0.87866998 -0.34018999 -1.4622999
-0.86285001 -0.38817 -1.4500999
-0.86580002 -0.37639999 -1.4586
-0.84235001 -0.40606001 -1.4475
-0.83613002 -0.39868498 -1.4407001
-0.86374998 -0.38132 -1.4478
-0.86079001 -0.36407 -1.4469
-0.81862998 -0.41273499 -1.4353001
-0.83604997 -0.40432 -1.4303
-0.86264998 -0.39517 -1.4364001
-0.85487998 -0.3802 -1.4319
-0.85303003 -0.37507001 -1.4355
-0.85057998 -0.36535001 -1.4335001
-0.84025002 -0.40193999 -1.4273
-0.83054501 -0.39806002 -1.4245
-0.85193002 -0.38174999 -1.4261
-0.83735001 -0.38343999 -1.427
-0.84749001 -0.36693001 -1.4219
-0.85973001 -0.33842999 -1.4289
-0.84065002 -0.42624 -1.4152
-0.83783001 -0.41637999 -1.4186
-0.84542501 -0.39638501 -1.4158
-0.83433002 -0.39473 -1.4126
-0.84527498 -0.387775 -1.4123
-0.82910001 -0.38240001 -1.4119
-0.84355998 -0.36372 -1.4155
-0.84208 -0.35675001 -1.4146
-0.85324502 -0.34215498 -1.4164
-0.84749001 -0.41927001 -1.4073
-0.847 -0.40768999 -1.4098001
-0.81834 -0.38856 -1.4068
-0.83585 -0.37292999 -1.4046
-0.84240001 -0.36188 -1.4084001
-0.83240998 -0.34898001 -1.4044
-0.69225001 -0.44260001 -1.3981
-0.83322001 -0.43346 -1.3934
-0.83371001 -0.42658001 -1.3965
-0.71585 -0.41010001 -1.392
-0.84170997 -0.39238 -1.3934
-0.817855 -0.39597499 -1.3926001
-0.80067003 -0.39989001 -1.3983001
-0.81292999 -0.38868999 -1.391
-0.83647001 -0.37882999 -1.3931
-0.82898003 -0.37814 -1.3904999
-0.83446336 -0.36493668 -1.3968
-0.81553 -0.36908999 -1.3901
-0.82700998 -0.35214999 -1.3937
-0.83879 -0.34112999 -1.3908
-0.82358003 -0.34099999 -1.3902
-0.70188999 -0.44459999 -1.3813
-0.71000999 -0.42519 -1.3868999
-0.70704001 -0.42473 -1.3803999
-0.85332 -0.41167 -1.3868999
-0.83873999 -0.41596001 -1.3811001
-0.82459998 -0.41376999 -1.3889
-0.84653997 -0.40296 -1.3827
-0.82119 -0.39256999 -1.3887
-0.81892002 -0.39291 -1.3899
-0.82700998 -0.37305 -1.3882999
-0.82666999 -0.35558999 -1.3895
-0.82484001 -0.34446999 -1.3863
-0.83765 -0.45162001 -1.3789999
-0.69171 -0.45664001 -1.3755201
-0.84377003 -0.44003999 -1.3717999
-0.84676999 -0.43228999 -1.3796999
-0.68571001 -0.42201999 -1.3765
-0.70617998 -0.403745 -1.3756
-0.83032 -0.39522001 -1.3717999
-0.82981998 -0.391 -1.3721
-0.82014 -0.3892 -1.3712
-0.70389003 -0.38934001 -1.3717
-0.79448998 -0.37562999 -1.3707
-0.81620997 -0.3599 -1.372
-0.8161 -0.33048999 -1.3710999
-0.85366327 -0.45690998 -1.3659334
-0.68488997 -0.4598 -1.3625
-0.82230002 -0.43294001 -1.3676
-0.69265997 -0.43588999 -1.3631001
-0.70249999 -0.4174 -1.3664
-0.68690997 -0.41521001 -1.3688999
-0.82735002 -0.40197 -1.3644
-0.82634997 -0.39748999 -1.3638999
-0.70090002 -0.39846 -1.3624001
-0.80185002 -0.38885999 -1.37
-0.70398003 -0.38224 -1.3679
-0.80146998 -0.36535001 -1.3648
-0.81301999 -0.34894001 -1.3636
-0.82483 -0.33947 -1.3662
-0.81203997 -0.33625001 -1.365
-0.85367 -0.463085 -1.352
-0.68169498 -0.46464503 -1.35655
-0.67891997 -0.46761498 -1.352175
-0.68270499 -0.45526999 -1.3558
-0.67992997 -0.45903999 -1.3512
-0.83530003 -0.43158999 -1.359
-0.68972999 -0.43518001 -1.3566999
-0.82981998 -0.42466 -1.3512
-0.67789501 -0.41299999 -1.352
-0.81795001 -0.40698001 -1.3565
-0.68343002 -0.40551001 -1.3516001
-0.82283998 -0.38062999 -1.3516999
-0.80884999 -0.38512999 -1.3515
-0.79075998 -0.36168 -1.3565
-0.80786997 -0.34796 -1.3598
-0.80870497 -0.331545 -1.35745
-0.71794999 -0.32574001 -1.35145
-0.85601997 -0.46788999 -1.3464
-0.83256 -0.46285999 -1.3491
-0.68093002 -0.46052 -1.3467
-0.67885602 -0.46551999 -1.3464599
-0.82981998 -0.45561001 -1.3411
-0.68070334 -0.45523 -1.3459333
-0.67906797 -0.45446199 -1.3457
-0.83304 -0.44097 -1.3465
-0.680776 -0.44425201 -1.34436
-0.67927665 -0.44675002 -1.3413
-0.81746 -0.43367001 -1.3473001
-0.67581499 -0.41031 -1.34805
-0.81743997 -0.40116 -1.3466001
-0.68252999 -0.40392998 -1.3460001
-0.67829001 -0.40609998 -1.34585
-0.81006998 -0.39364001 -1.3459001
-0.69712001 -0.39728001 -1.3485
-0.79273999 -0.38416001 -1.3433
-0.81985003 -0.37788001 -1.3471
-0.78546 -0.37792999 -1.3421
-0.78546 -0.35780999 -1.3476
-0.81436002 -0.33643001 -1.3482
-0.79952002 -0.33217999 -1.3484
-0.79973 -0.32971001 -1.3442
-0.72121 -0.32536 -1.3498
-0.71152002 -0.32606 -1.3408
-0.70936 -0.32631999 -1.3419
-0.67631137 -0.47445795 -1.3344533
-0.85213 -0.46812001 -1.334
-0.84122002 -0.46739 -1.3362
-0.67554641 -0.46549094 -1.3336364
-0.83376002 -0.45852 -1.3365
-0.81770003 -0.4551 -1.3352
-0.67628396 -0.45501003 -1.3341
-0.67877203 -0.44568601 -1.3355801
-0.68028998 -0.43774498 -1.33435
-0.67892337 -0.43435499 -1.3343834
-0.68217242 -0.42588747 -1.3364
-0.67975003 -0.42682999 -1.3306
-0.80317003 -0.40088999 -1.3311
-0.68515998 -0.4027833 -1.3342667
-0.69068998 -0.39081001 -1.3363
-0.68382752 -0.39509499 -1.3361251
-0.67891002 -0.39910001 -1.3373001
-0.79128999 -0.38738999 -1.3396
-0.68807 -0.38958001 -1.3368
-0.78450501 -0.37953001 -1.33445
-0.77726001 -0.36862001 -1.3399
-0.79676998 -0.34986001 -1.3336999
-0.80738002 -0.33610001 -1.3357
-0.79118001 -0.33265999 -1.3331
-0.79528999 -0.32519001 -1.3372
-0.78921002 -0.32247999 -1.332
-0.70903999 -0.32356501 -1.33355
-0.72088999 -0.48006999 -1.3256
-0.69473952 -0.48439762 -1.3230619
-0.82432997 -0.4711 -1.3256
-0.72147328 -0.47712997 -1.3259667
-0.70327997 -0.479505 -1.3201499
-0.69581336 -0.47880998 -1.3208333
-0.68501329 -0.47833666 -1.3209333
-0.67821521 -0.47555295 -1.3252764
-0.72841001 -0.46759999 -1.3285
-0.6770792 -0.46456575 -1.3249072
-0.81665504 -0.45643002 -1.322
-0.67605162 -0.45524526 -1.3245631
-0.67600197 -0.44549865 -1.3232
-0.80563998 -0.43002 -1.3265001
-0.67726833 -0.43563667 -1.32415
-0.68024999 -0.42673999 -1.3257999
-0.67859668 -0.42509332 -1.3255666
-0.81485999 -0.41161999 -1.3281
-0.68099999 -0.41704333 -1.3265667
-0.67888999 -0.41571999 -1.3247499
-0.81753999 -0.40608001 -1.3293
-0.80090499 -0.40151 -1.3213999
-0.68191999 -0.40508997 -1.3244333
-0.67818999 -0.40933999 -1.3207
-0.80435997 -0.39862001 -1.3286999
-0.67988998 -0.39311999 -1.3293999
-0.7845 -0.38674 -1.3271
-0.6864 -0.38956001 -1.3272001
-0.80514002 -0.36365998 -1.32445
-0.78083003 -0.36488 -1.3211
-0.68124998 -0.36013001 -1.3243001
-0.80439001 -0.35545501 -1.32535
-0.68597001 -0.35457999 -1.3246
-0.80190003 -0.34577999 -1.3234
-0.80140001 -0.32697001 -1.3273
-0.69916999 -0.32010001 -1.3221999
-0.70502996 -0.318315 -1.3264999
-0.80760998 -0.4826 -1.312
-0.71250999 -0.48058 -1.3191
-0.70620996 -0.48131165 -1.319
-0.80760998 -0.47330999 -1.3154
-0.71270555 -0.47389331 -1.3160777
-0.70522141 -0.47488049 -1.3171431
-0.69449532 -0.47358197 -1.3169665
-0.68409204 -0.47402102 -1.31714
-0.67882001 -0.47503 -1.31815
-0.71402335 -0.46416751 -1.3120998
-0.70537353 -0.46595705 -1.3123119
-0.69546336 -0.46719417 -1.3137168
-0.68471122 -0.46480602 -1.3133521
-0.67809927 -0.4644362 -1.3165307
-0.82441002 -0.45547 -1.3152
-0.81119001 -0.45594999 -1.3121001
-0.68355501 -0.45908499 -1.3103499
-0.67835075 -0.45502755 -1.3150251
-0.67785847 -0.44447613 -1.3163539
-0.72705495 -0.43798 -1.31275
-0.68077999 -0.43162999 -1.3135
-0.67681277 -0.43447533 -1.3155
-0.80787998 -0.42379001 -1.3115
-0.79725999 -0.42820999 -1.3116
-0.67647302 -0.425888 -1.3145499
-0.67792344 -0.41531223 -1.3156111
-0.67880505 -0.40566501 -1.3144001
-0.78179997 -0.39434999 -1.3144
-0.68167502 -0.39548999 -1.318
-0.67824668 -0.39722002 -1.3128333
-0.67910337 -0.38233665 -1.3152667
-0.78577501 -0.37705499 -1.3111999
-0.77373505 -0.37543499 -1.31275
-0.67909998 -0.37999001 -1.314
-0.7579 -0.36054 -1.3105
-0.67866999 -0.35999 -1.3187
-0.79841 -0.34553 -1.3171999
-0.76832002 -0.34459001 -1.3135999
-0.79592001 -0.33721 -1.3148501
-0.69995999 -0.32317999 -1.3176
-0.78151 -0.31810001 -1.3139
-0.70375001 -0.31584999 -1.3163
-0.72131997 -0.25668001 -1.3164999
-0.80489999 -0.486875 -1.3053
-0.71029001 -0.46489999 -1.3082
-0.70447665 -0.46197668 -1.3083
-0.69534111 -0.46158224 -1.3086889
-0.71505332 -0.45441413 -1.3075917
-0.70515913 -0.4545148 -1.3053173
-0.69491923 -0.4548313 -1.306226
-0.68562901 -0.45424762 -1.3073525
-0.67842799 -0.45399404 -1.3089399
-0.72069001 -0.44588 -1.3081
-0.7149775 -0.4466975 -1.3036624
-0.70505637 -0.44706362 -1.3015817
-0.69463664 -0.44549334 -1.3013417
-0.68468451 -0.44556451 -1.302755
-0.67781001 -0.44449878 -1.3054624
-0.79942 -0.43425 -1.3083
-0.68533003 -0.43892002 -1.3006001
-0.67764711 -0.43552074 -1.3051642
-0.67797899 -0.42396301 -1.30735
-0.78921002 -0.41742 -1.3053
-0.68037999 -0.41068 -1.3018
-0.67704791 -0.41556001 -1.3054
-0.80239999 -0.40656 -1.3069
-0.78257 -0.40567499 -1.3045
-0.72981 -0.40744999 -1.3005
-0.67716062 -0.40513667 -1.3037467
-0.80304003 -0.39221999 -1.3073
-0.79841 -0.39916 -1.302
-0.67683452 -0.39461002 -1.3026453
-0.80517 -0.38668999 -1.3077
-0.67727214 -0.38510668 -1.3027889
-0.79790998 -0.37160999 -1.3092
-0.67636228 -0.37474886 -1.3044889
-0.77157998 -0.36700001 -1.3033
-0.67095 -0.36221999 -1.3012
-0.78665 -0.35579002 -1.3059499
-0.67137998 -0.35982999 -1.3028001
-0.76282001 -0.34593001 -1.3081
-0.79109669 -0.33445001 -1.3069334
-0.77768999 -0.32449001 -1.3003
-0.68523997 -0.3238 -1.3031
-0.77430499 -0.31239498 -1.3046999
-0.695005 -0.31233001 -1.3072
-0.71220499 -0.25707999 -1.3011501
-0.71346754 -0.44155753 -1.2986751
-0.70453 -0.44166997 -1.2981364
-0.69525224 -0.44347334 -1.2992111
-0.68545592 -0.44119 -1.29952
-0.72218001 -0.43125999 -1.2993
-0.71343285 -0.43487 -1.2946213
-0.70504761 -0.43402094 -1.2937142
-0.69508553 -0.43524358 -1.2957836
-0.68504584 -0.43430355 -1.2958822
-0.67862439 -0.43361557 -1.2975554
-0.72250003 -0.42592999 -1.2961
-0.71516675 -0.42592999 -1.2902
-0.70248854 -0.42767715 -1.2920285
-0.69496506 -0.42794374 -1.2929125
-0.68424249 -0.42725167 -1.2924666
-0.67766815 -0.42502335 -1.2953429
-0.68118 -0.41689 -1.2901
-0.67816001 -0.41492429 -1.2943499
-0.72889 -0.40806001 -1.2984
-0.6783734 -0.40428868 -1.2948467
-0.80328 -0.39732 -1.296
-0.79690999 -0.39971 -1.2991
-0.67794138 -0.39461926 -1.2953358
-0.76915002 -0.38404 -1.2938
-0.68070334 -0.38574335 -1.295
-0.67800754 -0.38475621 -1.2963749
-0.68017 -0.37307 -1.2901
-0.67698687 -0.37512791 -1.2950001
-0.78794003 -0.36820999 -1.2921
-0.68109 -0.36346 -1.2926199
-0.67534089 -0.36561862 -1.2929682
-0.66859496 -0.36543 -1.2952
-0.74739999 -0.35411999 -1.2922
-0.68138665 -0.35677668 -1.2917668
-0.67830664 -0.35807002 -1.2922333
-0.78495002 -0.34988999 -1.2918
-0.76010001 -0.34338999 -1.2986
-0.67294002 -0.34487 -1.2934999
-0.67328 -0.33401501 -1.2916
-0.76858997 -0.31518 -1.2961
-0.69002998 -0.31329 -1.294
-0.77175999 -0.30392 -1.2946
-0.69434667 -0.30893001 -1.2986001
-0.68779999 -0.30583 -1.2912
-0.70383 -0.26390001 -1.291
-0.78889 -0.46597001 -1.2829
-0.78806001 -0.45102999 -1.2814
-0.78706998 -0.44154999 -1.2829
-0.78411001 -0.43215999 -1.2806
-0.71209335 -0.42397329 -1.2881666
-0.70533001 -0.42412192 -1.2881062
-0.69518387 -0.42227921 -1.2885768
-0.68550313 -0.42249459 -1.2885077
-0.79092997 -0.41591999 -1.283
-0.71394747 -0.41496065 -1.2844999
-0.70473546 -0.41531247 -1.2837701
-0.69482452 -0.41494498 -1.2838051
-0.68489462 -0.41417497 -1.2855141
-0.67839122 -0.41444251 -1.2883625
-0.71579003 -0.40798998 -1.2813001
-0.70574999 -0.40917802 -1.28124
-0.69291002 -0.40968502 -1.28115
-0.6823144 -0.40659222 -1.2820668
-0.67850453 -0.40454543 -1.2856637
-0.78234005 -0.39389333 -1.2878667
-0.77868003 -0.39465001 -1.2826
-0.6780321 -0.39483997 -1.2841858
-0.78744 -0.38973999 -1.2849
-0.72736001 -0.381255 -1.2821
-0.68033499 -0.384045 -1.2844501
-0.67825228 -0.38514695 -1.284577
-0.76170999 -0.37000999 -1.2891001
-0.73760998 -0.37272999 -1.2889
-0.68031502 -0.37367249 -1.2861
-0.67874664 -0.37455556 -1.2860111
-0.68059254 -0.36539248 -1.2862999
-0.67677796 -0.36583602 -1.28602
-0.66770804 -0.36174601 -1.2875799
-0.78345329 -0.35521331 -1.2876667
-0.68141854 -0.35523716 -1.2875715
-0.67616934 -0.35371399 -1.2866265
-0.66649646 -0.3547059 -1.2857118
-0.77077001 -0.34081 -1.2836
-0.68031335 -0.34622666 -1.2832667
-0.67547864 -0.34496093 -1.2834857
-0.66753054 -0.3458671 -1.2832117
-0.75146496 -0.33370501 -1.2824
-0.67349005 -0.3364825 -1.2818333
-0.66950995 -0.3361133 -1.2829667
-0.75408 -0.32148001 -1.2828
-0.68071002 -0.32030001 -1.289
-0.67261499 -0.32459 -1.2816999
-0.76073998 -0.30799001 -1.2835
-0.78969997 -0.51051998 -1.2728
-0.85582 -0.49630001 -1.2776
-0.79036999 -0.48355001 -1.2792
-0.78732997 -0.44487 -1.2718
-0.79304004 -0.43282998 -1.27615
-0.78843999 -0.43118 -1.2733999
-0.79303998 -0.42210001 -1.2797
-0.69883001 -0.41045001 -1.2796
-0.71283817 -0.40395176 -1.2769728
-0.70437545 -0.40362313 -1.2771592
-0.69532847 -0.40476364 -1.2780949
-0.68597096 -0.40337402 -1.278085
-0.67885667 -0.40192333 -1.2785667
-0.77067 -0.39193001 -1.2738
-0.76638001 -0.39662001 -1.2796
-0.72249001 -0.39491001 -1.2788
-0.71374619 -0.39499998 -1.2735436
-0.70474398 -0.3948372 -1.2726223
-0.69500953 -0.39558706 -1.2740082
-0.68433881 -0.39538541 -1.2752792
-0.67868602 -0.39281601 -1.27662
-0.78454 -0.38492501 -1.2760501
-0.72123337 -0.38203001 -1.2732334
-0.71739 -0.38627499 -1.2713
-0.70829999 -0.38951999 -1.27055
-0.69314504 -0.38916248 -1.2716501
-0.68449205 -0.38739604 -1.2708499
-0.67810208 -0.38542134 -1.27466
-0.78128999 -0.379545 -1.2718
-0.68115002 -0.37689999 -1.2746
-0.67800921 -0.37525833 -1.2752
-0.75533336 -0.36346665 -1.2756
-0.68011999 -0.36346 -1.2709
-0.6782012 -0.36461061 -1.2752875
-0.77135998 -0.35512999 -1.2758
-0.75505 -0.35512999 -1.2758
-0.68036669 -0.35510668 -1.2773666
-0.67868245 -0.35489124 -1.2743
-0.75212997 -0.34543997 -1.273
-0.74136001 -0.34862 -1.2771
-0.73872 -0.34167999 -1.27395
-0.68055999 -0.34262002 -1.27755
-0.67785913 -0.34509334 -1.2761749
-0.66643 -0.34898001 -1.2783999
-0.77199 -0.3364 -1.2721
-0.75261998 -0.33239999 -1.2774
-0.74648666 -0.33289668 -1.2725
-0.68080747 -0.33683121 -1.27495
-0.67507219 -0.33431956 -1.2766608
-0.75242501 -0.32397997 -1.27665
-0.68111002 -0.32688999 -1.2722
-0.67411333 -0.32463995 -1.2741199
-0.66947335 -0.32747331 -1.2769834
-0.75173998 -0.31803 -1.2744
-0.74970001 -0.31830999 -1.2755001
-0.67470998 -0.31822166 -1.27345
-0.76033002 -0.30544999 -1.2783999
-0.68248671 -0.30263332 -1.2740334
-0.67931998 -0.30065 -1.275
-0.67934501 -0.29822999 -1.27035
-0.69018 -0.28814 -1.2790999
-0.68813002 -0.28106999 -1.2714
-0.69805998 -0.25942999 -1.2754
-0.78527999 -0.51648003 -1.2618999
-0.83842999 -0.50129002 -1.2606
-0.78889 -0.50307 -1.2688
-0.85057998 -0.49274001 -1.2648
-0.84108001 -0.49860001 -1.2612
-0.78052002 -0.48120001 -1.2614
-0.78038001 -0.43077001 -1.2638
-0.78375 -0.42532998 -1.26425
-0.78154004 -0.41383499 -1.2615
-0.77135998 -0.39072999 -1.2653
-0.764965 -0.39291501 -1.2653999
-0.71094 -0.39136001 -1.2673
-0.70807004 -0.39131999 -1.2695
-0.69373 -0.39067999 -1.2697001
-0.76616001 -0.38537252 -1.264925
-0.75564998 -0.38211 -1.2640001
-0.7128883 -0.38393581 -1.2665085
-0.70457333 -0.38454619 -1.2668715
-0.69566357 -0.38467401 -1.2674701
-0.68585002 -0.38413471 -1.2682409
-0.67938 -0.382875 -1.269025
-0.76224333 -0.37331 -1.2671334
-0.75212997 -0.37024999 -1.266
-0.74921 -0.37127 -1.2602
-0.71379006 -0.37480399 -1.2623199
-0.70479757 -0.37629616 -1.2630143
-0.69524193 -0.3754243 -1.2629237
-0.6851564 -0.37494001 -1.2634759
-0.67889941 -0.37425497 -1.2661815
-0.76696002 -0.36190999 -1.2609
-0.75584751 -0.36534998 -1.2655499
-0.7490167 -0.36447001 -1.2635332
-0.72143 -0.36950999 -1.2634
-0.70153999 -0.36985001 -1.2601
-0.69736338 -0.3695167 -1.2605
-0.68255204 -0.36667001 -1.2621801
-0.67838639 -0.3650257 -1.264107
-0.76566005 -0.35692501 -1.26485
-0.74726498 -0.355845 -1.2609999
-0.72589332 -0.35428333 -1.2645
-0.68033999 -0.35359335 -1.2669667
-0.67793095 -0.35531184 -1.2656636
-0.75990999 -0.34219 -1.2634
-0.74629664 -0.34627333 -1.2618667
-0.72907001 -0.34397331 -1.2616667
-0.68001997 -0.34399 -1.2601
-0.67839336 -0.34420836 -1.2650584
-0.76899999 -0.33634001 -1.2667
-0.75133997 -0.33188999 -1.2652
-0.74476004 -0.33275667 -1.2667999
-0.73285002 -0.33322001 -1.2601
-0.68041831 -0.33418167 -1.2662499
-0.67890626 -0.33626503 -1.2645249
-0.76089001 -0.32492 -1.2697001
-0.75207496 -0.32591 -1.2681
-0.74320006 -0.32600498 -1.264625
-0.73632002 -0.32986999 -1.2625
-0.68083 -0.32475001 -1.2648
-0.67837596 -0.32420868 -1.2658268
-0.74191999 -0.31992999 -1.2607
-0.73891997 -0.31847 -1.2604001
-0.68013501 -0.31507 -1.2653
-0.67753386 -0.31524387 -1.2651277
-0.75494498 -0.30462 -1.2664001
-0.67707163 -0.30725831 -1.2626667
-0.74993998 -0.29855001 -1.266
-0.68086749 -0.29747748 -1.2671499
-0.67850631 -0.29415125 -1.2644125
-0.68189001 -0.28656 -1.2661667
-0.68405002 -0.27805999 -1.2639
-0.69839001 -0.23966999 -1.2699
-0.70453 -0.21426 -1.2666
-0.85588002 -0.52126998 -1.2523
-0.84055001 -0.50081003 -1.2594
-0.84478998 -0.49434999 -1.2541
-0.77609003 -0.48221001 -1.2527
-0.78345001 -0.45096999 -1.2573
-0.77116001 -0.45914 -1.252
-0.80519003 -0.44408 -1.2537
-0.78038001 -0.44452 -1.2591
-0.77714503 -0.44209 -1.25395
-0.77077001 -0.42087001 -1.2596
-0.76978999 -0.41406 -1.26
-0.7639733 -0.40556666 -1.2553667
-0.76205003 -0.39569998 -1.2566
-0.75712663 -0.39296332 -1.2539222
-0.76441997 -0.38587001 -1.2541
-0.75465763 -0.38472819 -1.2542588
-0.77104002 -0.37261 -1.2553
-0.76244003 -0.37985 -1.2523
-0.7537452 -0.37540883 -1.2547941
-0.74930501 -0.37437999 -1.2544501
-0.711555 -0.37155998 -1.2588501
-0.7054075 -0.37239251 -1.259325
-0.69357997 -0.37101001 -1.2593
-0.68858999 -0.37237 -1.2592
-0.76046002 -0.36757001 -1.2523
-0.7515111 -0.36485332 -1.2558445
-0.74770772 -0.36554149 -1.255246
-0.71359944 -0.36442563 -1.2562749
-0.70457751 -0.36529541 -1.2556165
-0.69502497 -0.36489454 -1.25722
-0.68482751 -0.36402705 -1.2565291
-0.67870247 -0.363305 -1.2585499
-0.75112993 -0.35638165 -1.2556499
-0.74796897 -0.35384598 -1.25595
-0.71485817 -0.35637817 -1.2529819
-0.70564419 -0.35752165 -1.2520584
-0.69533145 -0.35717502 -1.2516142
-0.68437064 -0.35626426 -1.2535845
-0.67806888 -0.35381779 -1.2568777
-0.7456547 -0.34465706 -1.2544528
-0.72527003 -0.34716499 -1.2594
-0.680695 -0.34543002 -1.2507
-0.67801559 -0.3454262 -1.2546
-0.75042999 -0.33151001 -1.2587
-0.74414641 -0.33591571 -1.2557644
-0.73439997 -0.33022001 -1.2588
-0.72948998 -0.33291 -1.2538
-0.68013501 -0.33454001 -1.2550499
-0.6785289 -0.33512333 -1.2559667
-0.74328685 -0.32386461 -1.2554615
-0.73895746 -0.32268 -1.2569749
-0.68001997 -0.32449502 -1.2549
-0.67872 -0.326002 -1.2549301
-0.74199748 -0.31691998 -1.2555
-0.73687994 -0.31794 -1.25555
-0.68062001 -0.31535333 -1.2584666
-0.6787473 -0.31568635 -1.2545365
-0.74155003 -0.30869001 -1.2531
-0.68065751 -0.30353749 -1.25375
-0.67804468 -0.30540174 -1.2559531
-0.74472666 -0.29653001 -1.2538
-0.68067998 -0.29159001 -1.2591
-0.67786533 -0.29598266 -1.2541268
-0.67590666 -0.28606498 -1.2533333
-0.68378001 -0.27186999 -1.2596
-0.68013 -0.26909 -1.253
-0.67967999 -0.26763999 -1.2524
-0.69037998 -0.25161999 -1.2569
-0.68908 -0.25411499 -1.2588
-0.69937003 -0.20745 -1.2579
-0.79293001 -0.52472001 -1.2463
-0.77938998 -0.52503002 -1.247
-0.8617 -0.51941001 -1.2478
-0.84688997 -0.51012999 -1.2464
-0.77498001 -0.5133 -1.2434
-0.78285998 -0.50356001 -1.2413
-0.83677 -0.49412251 -1.245325
-0.77165997 -0.48320001 -1.2438999
-0.77594 -0.46312499 -1.2414999
-0.77464855 -0.45573997 -1.2429143
-0.77353203 -0.44721204 -1.2444201
-0.76286995 -0.42458498 -1.24365
-0.77532995 -0.41460001 -1.2449
-0.76238 -0.41248 -1.2467999
-0.76155335 -0.40579 -1.2474667
-0.75700104 -0.39554998 -1.2458198
-0.75643128 -0.385885 -1.24555
-0.75773001 -0.37184501 -1.24605
-0.74594003 -0.37481666 -1.2447333
-0.74791002 -0.36917999 -1.2485
-0.76152003 -0.35923001 -1.2469
-0.75652999 -0.35126501 -1.24255
-0.71293253 -0.35214251 -1.2492499
-0.70440251 -0.3525925 -1.2484417
-0.69484997 -0.35272539 -1.2491385
-0.68627501 -0.35132834 -1.2492
-0.67800999 -0.35036001 -1.249
-0.74524999 -0.34097999 -1.2491
-0.72134495 -0.34271002 -1.24805
-0.71345687 -0.34505937 -1.2456623
-0.70497447 -0.34476414 -1.2447957
-0.69550472 -0.34524778 -1.2460259
-0.6844368 -0.34498215 -1.2462463
-0.67897797 -0.34276801 -1.24686
-0.743348 -0.33355999 -1.24614
-0.73905998 -0.33063 -1.24775
-0.72368503 -0.333895 -1.24505
-0.71502084 -0.33646083 -1.2426332
-0.70461726 -0.3370018 -1.2415637
-0.69568229 -0.33611998 -1.2413232
-0.68425918 -0.33675289 -1.2429252
-0.67774147 -0.3344416 -1.2464
-0.74285996 -0.32686201 -1.24702
-0.724145 -0.3236275 -1.242475
-0.67814231 -0.32524696 -1.2445384
-0.74432999 -0.31384999 -1.2472
-0.73741859 -0.31259283 -1.2459286
-0.72917002 -0.31909999 -1.247
-0.68013 -0.31151 -1.2431
-0.67833698 -0.31478849 -1.2460616
-0.74212003 -0.30559 -1.2405
-0.73561996 -0.30561221 -1.2435112
-0.68048668 -0.30382666 -1.244
-0.67869538 -0.30557802 -1.2446934
-0.742365 -0.293845 -1.24615
-0.73965001 -0.29205 -1.244
-0.68033665 -0.29507002 -1.2458
-0.67856467 -0.29490536 -1.244754
-0.74014997 -0.28996 -1.2407
-0.73817003 -0.28896001 -1.2421
-0.68134999 -0.28375 -1.2422
-0.67725617 -0.28490567 -1.2453619
-0.68044001 -0.27961001 -1.2413
-0.67755687 -0.27596629 -1.2434106
-0.67737752 -0.26540875 -1.24325
-0.69709998 -0.20231 -1.2496001
-0.73316002 -0.095941998 -1.2491
-0.77502805 -0.53329402 -1.2329199
-0.83743 -0.52157998 -1.2352
-0.77649832 -0.52632999 -1.2320166
-0.78390503 -0.51329499 -1.23665
-0.83737999 -0.50682002 -1.2312
-0.77447999 -0.50297499 -1.23615
-0.76761001 -0.50335002 -1.2334
-0.77739501 -0.494515 -1.2347
-0.76673001 -0.49233001 -1.2309
-0.77470005 -0.48267999 -1.2316999
-0.76673001 -0.48381001 -1.2343
-0.77276999 -0.47370666 -1.233
-0.77281493 -0.46480247 -1.2363375
-0.7646175 -0.46295249 -1.2319
-0.77043998 -0.45243001 -1.2378
-0.76420671 -0.45517668 -1.2336
-0.80365503 -0.44532001 -1.2356501
-0.76089501 -0.44621998 -1.2323501
-0.76138997 -0.43051001 -1.2388
-0.75792998 -0.43469501 -1.23095
-0.75946498 -0.423585 -1.23265
-0.77158999 -0.41477999 -1.2332
-0.76646858 -0.41497999 -1.2336
-0.75768 -0.41425002 -1.2375
-0.76336002 -0.40811667 -1.2335
-0.75634754 -0.40410751 -1.2359
-0.75514668 -0.39685667 -1.2368666
-0.75500399 -0.38507801 -1.2370399
-0.74953002 -0.38824999 -1.2309
-0.75204998 -0.37322 -1.2304
-0.75353503 -0.36290002 -1.23615
-0.75055999 -0.35038 -1.2344
-0.74906999 -0.34711 -1.2326
-0.71285599 -0.33242998 -1.23806
-0.7052893 -0.33328715 -1.2381572
-0.69560379 -0.3342725 -1.23905
-0.68552899 -0.332647 -1.23832
-0.67769003 -0.33142 -1.2381001
-0.74163002 -0.32030001 -1.2359
-0.72112 -0.32347 -1.23805
-0.71429384 -0.32582447 -1.2348001
-0.70497966 -0.32497519 -1.233784
-0.69565296 -0.32513031 -1.2348633
-0.68483108 -0.32579663 -1.2359067
-0.6780833 -0.32458109 -1.2378556
-0.72143668 -0.31313333 -1.2340666
-0.71576202 -0.31740198 -1.23098
-0.7047478 -0.31805333 -1.2313333
-0.69312924 -0.3167631 -1.2318385
-0.68456066 -0.31724536 -1.23176
-0.67766345 -0.31541497 -1.2351149
-0.73126 -0.30302 -1.2379999
-0.72293746 -0.30475 -1.23175
-0.677926 -0.30437598 -1.2334
-0.73402798 -0.29631001 -1.23472
-0.72931999 -0.29605001 -1.2337
-0.67857134 -0.29475001 -1.2351143
-0.74207997 -0.28760999 -1.2307
-0.73631752 -0.28567499 -1.2336
-0.72981 -0.28788999 -1.2319
-0.68033999 -0.28346002 -1.23525
-0.67831939 -0.28535819 -1.2351824
-0.68102998 -0.27694499 -1.2381001
-0.6788736 -0.27420503 -1.2337428
-0.67778689 -0.26519844 -1.2350192
-0.74699003 -0.25062001 -1.2381999
-0.67706358 -0.25567457 -1.2343907
-0.74748999 -0.24950001 -1.2393
-0.67653 -0.244535 -1.2312
-0.69439 -0.19033 -1.2369
-0.72229999 -0.097852498 -1.23435
-0.72325504 -0.088117003 -1.23455
-0.72521001 -0.075113997 -1.2366
-0.78391004 -0.535465 -1.2272501
-0.77398098 -0.53573 -1.22613
-0.76965666 -0.53592336 -1.2270666
-0.83793998 -0.52736002 -1.2286
-0.77391416 -0.52464414 -1.222975
-0.76802599 -0.52257407 -1.2250999
-0.84470999 -0.51762003 -1.2294
-0.77270991 -0.51453358 -1.2242786
-0.76784748 -0.51511246 -1.2254417
-0.82327998 -0.50713998 -1.2214
-0.77305704 -0.50593799 -1.22287
-0.76716053 -0.50470173 -1.2241111
-0.77333295 -0.49542499 -1.22562
-0.76607144 -0.49444652 -1.2241648
-0.81494999 -0.48054001 -1.2225
-0.77310997 -0.48445332 -1.2289001
-0.76595277 -0.4849681 -1.2254906
-0.77043998 -0.47476 -1.2294
-0.76432824 -0.47515589 -1.2255589
-0.76281196 -0.46526203 -1.2258501
-0.75989246 -0.46634001 -1.224275
-0.76294333 -0.45528999 -1.2269667
-0.75875884 -0.45523998 -1.2244779
-0.80102998 -0.44418001 -1.2265
-0.78372002 -0.44091001 -1.2214
-0.76146245 -0.44517249 -1.2274749
-0.75778222 -0.44465888 -1.2254111
-0.77866 -0.43380001 -1.2247
-0.75721538 -0.43486533 -1.22488
-0.7720933 -0.42574334 -1.2238001
-0.76906502 -0.42243001 -1.2235
-0.75533223 -0.42547554 -1.2243445
-0.76613605 -0.41468388 -1.2262721
-0.75367308 -0.41444296 -1.2235901
-0.76003999 -0.40285 -1.2259001
-0.75378573 -0.40523621 -1.2240312
-0.75225168 -0.39529249 -1.2242666
-0.74905664 -0.39554 -1.2227666
-0.7518357 -0.38611999 -1.2246429
-0.74806666 -0.38651335 -1.2238333
-0.75093251 -0.377525 -1.225825
-0.747325 -0.37261 -1.2219501
-0.75105 -0.36730662 -1.2256001
-0.7465775 -0.36680749 -1.222375
-0.74309999 -0.35042 -1.2209001
-0.74409199 -0.345034 -1.2232599
-0.74011999 -0.33193001 -1.2206
-0.73865497 -0.33608001 -1.22155
-0.73593998 -0.32265002 -1.2226
-0.70971 -0.32115999 -1.2292
-0.73519802 -0.31475598 -1.2237999
-0.71327662 -0.31346667 -1.227211
-0.70503134 -0.31365362 -1.2272909
-0.69551224 -0.31391215 -1.2281358
-0.6842646 -0.31310689 -1.2282385
-0.67852002 -0.311755 -1.2285
-0.73396254 -0.304975 -1.223525
-0.72049999 -0.30794001 -1.2288001
-0.71354377 -0.30495435 -1.2234437
-0.70510185 -0.30527854 -1.223426
-0.69469476 -0.30579257 -1.2245913
-0.6849364 -0.3050577 -1.2252033
-0.67824835 -0.30421919 -1.2269584
-0.7324 -0.29216668 -1.2246
-0.72344506 -0.29751 -1.22615
-0.71614003 -0.297535 -1.2209001
-0.70630497 -0.2992 -1.2210751
-0.69424582 -0.29803416 -1.2211833
-0.68475628 -0.29739437 -1.2219563
-0.67821801 -0.29520333 -1.2250201
-0.73393118 -0.28634626 -1.2239125
-0.72344333 -0.28761998 -1.2234
-0.68032002 -0.28009999 -1.2262
-0.67796302 -0.28507462 -1.2245231
-0.73559999 -0.27770001 -1.2214
-0.68083 -0.27425751 -1.2261001
-0.67882252 -0.27466837 -1.224075
-0.68082625 -0.26364499 -1.2253751
-0.67899817 -0.2649782 -1.2256274
-0.73653001 -0.25512001 -1.2234
-0.68071997 -0.25437498 -1.2228999
-0.67683887 -0.25484705 -1.2246059
-0.74181998 -0.24081001 -1.222
-0.67532927 -0.24509929 -1.2236
-0.67732245 -0.23506236 -1.2247
-0.68001997 -0.22287001 -1.2277
-0.67752999 -0.22892334 -1.2218
-0.68287998 -0.21566001 -1.2298
-0.67581999 -0.21887 -1.2203
-0.69060999 -0.179225 -1.2268
-0.71561003 -0.075607501 -1.2242
-0.70301002 -0.072186001 -1.2287
-0.84104002 -0.54021001 -1.2183
-0.77504665 -0.54377002 -1.2110333
-0.84772998 -0.53109002 -1.2139
-0.83420998 -0.53049999 -1.2157
-0.78096002 -0.53851002 -1.2177
-0.77374142 -0.53310859 -1.2137716
-0.77405667 -0.52695996 -1.2165667
-0.76937002 -0.52096999 -1.2137001
-0.77239841 -0.51508671 -1.2185
-0.76986998 -0.51521999 -1.2171
-0.77092999 -0.50198001 -1.2194999
-0.76788497 -0.50361001 -1.2181499
-0.82213002 -0.48704001 -1.2177
-0.80097997 -0.46952 -1.2121
-0.78163999 -0.44174001 -1.2125
-0.78286999 -0.43187499 -1.2134
-0.77380502 -0.43191999 -1.21175
-0.7717101 -0.42393997 -1.2140166
-0.7687034 -0.42294165 -1.2137834
-0.76791376 -0.41813004 -1.2168375
-0.75304002 -0.41169 -1.2199
-0.75303996 -0.40487498 -1.2197499
-0.74956 -0.39515001 -1.219
-0.75054997 -0.38464999 -1.2193
-0.74608505 -0.38372749 -1.218675
-0.74856001 -0.37250999 -1.2194999
-0.74571717 -0.36299142 -1.2185143
-0.74360806 -0.35517332 -1.2159734
-0.739375 -0.35167 -1.2137001
-0.74457002 -0.34869999 -1.2193
-0.74094003 -0.33796334 -1.2188667
-0.73758 -0.33345371 -1.2167751
-0.74058002 -0.32846999 -1.2177
-0.73499864 -0.32512802 -1.2150666
-0.73409939 -0.31564063 -1.21465
-0.73299009 -0.30494288 -1.2154644
-0.72900999 -0.30620998 -1.2142501
-0.71224999 -0.30055001 -1.22
-0.70207 -0.301135 -1.2197499
-0.69748998 -0.30077499 -1.2183
-0.73232007 -0.29547229 -1.2159386
-0.72884405 -0.295286 -1.21436
-0.71339709 -0.29413527 -1.2167883
-0.70518869 -0.29382962 -1.2168913
-0.69559687 -0.29311109 -1.2174419
-0.68534082 -0.29244384 -1.2178384
-0.67858201 -0.29298401 -1.21878
-0.73190379 -0.28493625 -1.2165501
-0.72567141 -0.28419143 -1.214543
-0.7138291 -0.28650001 -1.2135454
-0.70484662 -0.28516123 -1.2124875
-0.69472003 -0.28538111 -1.2136556
-0.68449032 -0.28534585 -1.2149622
-0.67867607 -0.28524384 -1.2180307
-0.73115754 -0.2773425 -1.217
-0.72653168 -0.27538294 -1.2151294
-0.71637803 -0.27753401 -1.21162
-0.68249857 -0.27683502 -1.2119429
-0.67834812 -0.27502376 -1.2141438
-0.73110998 -0.26989001 -1.2151
-0.72570503 -0.26519501 -1.2111001
-0.68002003 -0.26403999 -1.2195333
-0.67873168 -0.26530501 -1.2135667
-0.72687 -0.25560999 -1.21065
-0.68032998 -0.25461331 -1.2149999
-0.67825365 -0.25445998 -1.2164181
-0.68027997 -0.24293001 -1.2133666
-0.67748654 -0.2447533 -1.2160074
-0.68085998 -0.23589249 -1.21155
-0.67764938 -0.23476951 -1.2150148
-0.68014997 -0.22406 -1.2136
-0.67601269 -0.2253079 -1.2143368
-0.67404747 -0.216195 -1.2127249
-0.67353499 -0.20904499 -1.2107
-0.67897499 -0.19479001 -1.21415
-0.68443 -0.18616 -1.2187999
-0.69529003 -0.15051 -1.212
-0.70862001 -0.11933 -1.2172
-0.71289003 -0.10095 -1.2176
-0.71428001 -0.089787997 -1.2165
-0.83880001 -0.54711002 -1.2012
-0.77275997 -0.54407662 -1.2041888
-0.77252996 -0.53556752 -1.209425
-0.76888001 -0.53503001 -1.2066
-0.76788998 -0.52722001 -1.2081
-0.83134001 -0.51349002 -1.2031
-0.83081001 -0.49759999 -1.2088
-0.82708001 -0.49656001 -1.2029001
-0.79486001 -0.45536751 -1.2055
-0.78338671 -0.44688335 -1.2024332
-0.77952999 -0.44271001 -1.2036
-0.7748853 -0.43214473 -1.2036588
-0.77176142 -0.42655998 -1.2058572
-0.76966667 -0.42567003 -1.2081
-0.73067999 -0.30950001 -1.2095
-0.71334332 -0.28299665 -1.2091001
-0.70769203 -0.28188601 -1.20948
-0.69719499 -0.28104749 -1.20945
-0.68558502 -0.2802 -1.20995
-0.72087997 -0.27254 -1.2099
-0.7134738 -0.27547753 -1.2066813
-0.70465571 -0.27440336 -1.2066634
-0.69466257 -0.27457675 -1.2070143
-0.68542498 -0.27383539 -1.2073916
-0.72291332 -0.26666665 -1.2072667
-0.71478826 -0.26562116 -1.2025765
-0.70558947 -0.26638427 -1.2028571
-0.69417679 -0.26508361 -1.2028079
-0.68432468 -0.26479933 -1.2042749
-0.67871398 -0.26430899 -1.2065001
-0.72163999 -0.25914001 -1.2006
-0.71875 -0.25716501 -1.2004
-0.69408661 -0.25909334 -1.2004666
-0.68300569 -0.25721925 -1.201793
-0.6785053 -0.25429237 -1.2053293
-0.68063331 -0.24562 -1.2049166
-0.67843181 -0.24514998 -1.205409
-0.68015999 -0.23347999 -1.2041
-0.67877132 -0.23509604 -1.2042534
-0.6809715 -0.22554712 -1.2036428
-0.67822051 -0.22447698 -1.206165
-0.68088669 -0.21502556 -1.2027888
-0.67645407 -0.21452907 -1.2060001
-0.68076879 -0.20497555 -1.2012889
-0.67581058 -0.2053165 -1.20293
-0.68059999 -0.19624001 -1.2009001
-0.67621166 -0.19509667 -1.2027278
-0.67755252 -0.18539 -1.204875
-0.68011999 -0.1777 -1.2029001
-0.69897002 -0.13294999 -1.2074
-0.70210999 -0.061271999 -1.2056
-0.70818001 -0.054000001 -1.2036999
-0.85314 -0.54452002 -1.1923
-0.84108001 -0.52442998 -1.1955
-0.83904999 -0.52495003 -1.1967
-0.80249333 -0.47384667 -1.1905
-0.79917997 -0.47420999 -1.1925
-0.80022001 -0.46039999 -1.1998
-0.79101998 -0.46675 -1.1908
-0.79279333 -0.45399666 -1.1924334
-0.78280002 -0.44404602 -1.1945
-0.77710009 -0.44169748 -1.192425
-0.77548641 -0.43546861 -1.1942714
-0.77636999 -0.42965999 -1.1979001
-0.71403831 -0.26173332 -1.1991833
-0.70421749 -0.2625525 -1.198375
-0.69544196 -0.26076999 -1.19892
-0.68965 -0.26648 -1.1998
-0.72103 -0.25084001 -1.1968
-0.714463 -0.25496703 -1.196353
-0.70449632 -0.25495884 -1.1958915
-0.6947062 -0.25441501 -1.1964347
-0.68519646 -0.25343826 -1.1972129
-0.67969 -0.25229999 -1.1979001
-0.71610212 -0.2456243 -1.1929929
-0.705809 -0.24738841 -1.1919633
-0.69471055 -0.24634349 -1.1924942
-0.68453699 -0.24507836 -1.1935917
-0.67877823 -0.24468999 -1.1964818
-0.72162253 -0.2335275 -1.19145
-0.71653003 -0.23981 -1.1912
-0.70134002 -0.2397 -1.1906
-0.68164444 -0.23736334 -1.1939223
-0.67893088 -0.23460363 -1.1946273
-0.73246998 -0.22521999 -1.1999
-0.72416002 -0.22886001 -1.1935
-0.68053222 -0.22522333 -1.1941999
-0.67884696 -0.22488001 -1.19487
-0.73368001 -0.21209 -1.1956
-0.68067503 -0.214645 -1.1956298
-0.67906719 -0.21505284 -1.1916
-0.68103337 -0.20590891 -1.1955667
-0.67409599 -0.20356998 -1.19749
-0.668145 -0.20104 -1.19945
-0.68066335 -0.19510664 -1.1955584
-0.67584246 -0.19484814 -1.1976312
-0.66883999 -0.1999 -1.1964
-0.68086171 -0.18496417 -1.1942083
-0.6755408 -0.18510096 -1.1941097
-0.68122 -0.17666499 -1.1961
-0.67589664 -0.17604667 -1.1945332
-0.67576998 -0.16993 -1.1914999
-0.68277001 -0.15605 -1.19295
-0.69173002 -0.13548 -1.1985
-0.69230998 -0.1248475 -1.19415
-0.70014 -0.10646 -1.199
-0.69985998 -0.090329997 -1.1912
-0.69397002 -0.074056998 -1.1992
-0.70086002 -0.058304001 -1.1950001
-0.86128002 -0.55774999 -1.1803
-0.85571998 -0.55026001 -1.1892
-0.84987998 -0.54363 -1.1872
-0.82814503 -0.54659998 -1.18285
-0.84297001 -0.53863001 -1.1826
-0.83420998 -0.53609997 -1.1834
-0.82749999 -0.53542 -1.1819
-0.83837998 -0.52746999 -1.1896
-0.80144 -0.46946999 -1.1841
-0.79328501 -0.4655275 -1.180925
-0.78858602 -0.46307001 -1.1822401
-0.79492497 -0.45840502 -1.1889
-0.78612 -0.45401251 -1.1864874
-0.77968001 -0.4508 -1.1817
-0.78267998 -0.44868001 -1.1831
-0.77740997 -0.44353801 -1.18522
-0.77425426 -0.43543425 -1.1859857
-0.71198004 -0.24305834 -1.18905
-0.70458424 -0.2421314 -1.1886785
-0.69632363 -0.24202453 -1.1887819
-0.68792671 -0.24053 -1.1883668
-0.71435577 -0.23463356 -1.1861643
-0.70556474 -0.23484832 -1.1850033
-0.69498777 -0.23482098 -1.1856934
-0.68460488 -0.23432966 -1.1873939
-0.67821002 -0.23560999 -1.1892999
-0.72148001 -0.22603001 -1.1849999
-0.71485841 -0.22626694 -1.1821153
-0.70552856 -0.2275307 -1.1812928
-0.69399142 -0.22717132 -1.1818733
-0.68401229 -0.22544733 -1.1835066
-0.67886168 -0.22455001 -1.1866833
-0.72592664 -0.21552001 -1.1874666
-0.71894997 -0.21943 -1.1819
-0.68040138 -0.21447286 -1.1864998
-0.67930496 -0.215059 -1.1835799
-0.68054372 -0.20418625 -1.18545
-0.67879206 -0.20522502 -1.18528
-0.6808117 -0.19540167 -1.1865
-0.67914617 -0.19453308 -1.1857307
-0.68129927 -0.18479286 -1.1852
-0.67878002 -0.18570144 -1.1858143
-0.68124998 -0.17646 -1.184025
-0.67642373 -0.17488797 -1.1858934
-0.68165749 -0.1663 -1.18295
-0.67649168 -0.16621706 -1.1829234
-0.67786998 -0.15395667 -1.1813668
-0.68355 -0.14621 -1.1868
-0.68392998 -0.13752 -1.1842
-0.69173998 -0.11363 -1.1835001
-0.69406003 -0.1028 -1.1842999
-0.69555002 -0.073435001 -1.1891
-0.68976003 -0.071872003 -1.1833
-0.85890001 -0.56010002 -1.1704
-0.81681502 -0.56507003 -1.1715
-0.85890001 -0.55895001 -1.1709
-0.83069998 -0.55299002 -1.1794
-0.85119998 -0.54668999 -1.1783
-0.84727502 -0.54660499 -1.1765499
-0.83955997 -0.54047 -1.1711
-0.82582498 -0.54049498 -1.17425
-0.83045 -0.53249002 -1.1786
-0.82235003 -0.53447247 -1.175825
-0.82749498 -0.52763498 -1.1756999
-0.82427001 -0.51858002 -1.17415
-0.81745499 -0.49737999 -1.17645
-0.80432999 -0.49136001 -1.1706001
-0.80397338 -0.48384333 -1.1731334
-0.80129999 -0.47589999 -1.1765
-0.79656333 -0.47569335 -1.1746666
-0.792404 -0.46526402 -1.1747801
-0.78847331 -0.46335664 -1.1765666
-0.78377497 -0.45660785 -1.1769143
-0.77956003 -0.45398 -1.1756001
-0.78151 -0.44983 -1.1759
-0.77537 -0.44392204 -1.17488
-0.76942998 -0.44167 -1.1718
-0.71267855 -0.22261143 -1.1777714
-0.70438659 -0.22268535 -1.1782666
-0.69551009 -0.22287945 -1.1789685
-0.68458116 -0.22347999 -1.1790891
-0.72112 -0.21385001 -1.1781
-0.71363384 -0.21541888 -1.1753112
-0.70496881 -0.21471286 -1.1739743
-0.69514549 -0.21454968 -1.1749324
-0.68469423 -0.21503112 -1.1759614
-0.67868501 -0.21534748 -1.1772749
-0.72081 -0.20320499 -1.17305
-0.71578747 -0.20707126 -1.1717374
-0.70431006 -0.20788498 -1.17136
-0.69495934 -0.20729358 -1.1715287
-0.68470293 -0.20653765 -1.1724706
-0.67900479 -0.20452631 -1.1742843
-0.72303998 -0.19815999 -1.1714
-0.68041998 -0.19486333 -1.1785334
-0.67906988 -0.19519466 -1.1751133
-0.68055791 -0.18535 -1.1768
-0.67890561 -0.18496111 -1.1729889
-0.68112165 -0.17467499 -1.1756834
-0.67880929 -0.17439856 -1.1750429
-0.68132704 -0.16470215 -1.1754285
-0.67712903 -0.16338101 -1.17817
-0.68110198 -0.154533 -1.17401
-0.67764229 -0.15564273 -1.1755317
-0.68037999 -0.14796001 -1.1723
-0.67775685 -0.1456356 -1.1737374
-0.6783725 -0.1367275 -1.172175
-0.68233001 -0.12854999 -1.1781
-0.68351001 -0.11383 -1.1731
-0.68432999 -0.10645 -1.1711
-0.68563998 -0.095785998 -1.1701
-0.69273001 -0.087898999 -1.1747
-0.68826669 -0.07633467 -1.1719333
-0.67646003 -0.072401002 -1.1723
-0.80800003 -0.56655997 -1.1625
-0.86092001 -0.55953002 -1.1691999
-0.8154 -0.55682999 -1.16795
-0.84731668 -0.54838997 -1.1644667
-0.81787997 -0.53850001 -1.1638
-0.81932998 -0.52710998 -1.1667
-0.82437998 -0.51744002 -1.17
-0.8147375 -0.50501502 -1.1637501
-0.80719 -0.50024998 -1.1623
-0.81135005 -0.49457332 -1.1640333
-0.80499333 -0.49421167 -1.1642667
-0.80129623 -0.48538625 -1.1649375
-0.7991128 -0.48328286 -1.1636571
-0.80131996 -0.47825998 -1.16855
-0.7958234 -0.47491667 -1.1674334
-0.71273005 -0.20389231 -1.1683615
-0.70452607 -0.20353501 -1.1675951
-0.69449466 -0.20276666 -1.1677934
-0.68520498 -0.20290437 -1.1686561
-0.72107667 -0.19144666 -1.1678001
-0.71399099 -0.19497524 -1.1645143
-0.70597887 -0.19598371 -1.1643592
-0.69493824 -0.19507724 -1.1639776
-0.68443537 -0.1953072 -1.1650831
-0.67899996 -0.193591 -1.1674101
-0.72152001 -0.185275 -1.1626501
-0.71537668 -0.18739666 -1.1609
-0.70095003 -0.18735999 -1.1605
-0.69497722 -0.18765856 -1.1614572
-0.68424135 -0.18563838 -1.1623418
-0.67843175 -0.18431719 -1.1647776
-0.72565496 -0.17471001 -1.1629
-0.68085998 -0.17389286 -1.1634572
-0.67879069 -0.17546572 -1.1652858
-0.72888005 -0.16643 -1.1633
-0.68066442 -0.16438222 -1.1648778
-0.67935002 -0.16679201 -1.1666
-0.68124199 -0.154814 -1.1644
-0.67923921 -0.15567334 -1.164975
-0.68115073 -0.14413072 -1.1665071
-0.67865819 -0.14523545 -1.1675818
-0.68111217 -0.13610445 -1.1641444
-0.67789793 -0.13455315 -1.1658367
-0.68126398 -0.127606 -1.1635201
-0.67857355 -0.12489413 -1.1644882
-0.68146664 -0.11756334 -1.1635333
-0.67930138 -0.11578286 -1.1624857
-0.68167001 -0.10441 -1.1624
-0.68293333 -0.096778333 -1.1638333
-0.68412 -0.077834003 -1.1645666
-0.76779997 -0.067355998 -1.1651
-0.68118 -0.059190001 -1.1647
-0.802535 -0.56591499 -1.15545
-0.79917997 -0.56733501 -1.15115
-0.8459 -0.55118001 -1.1576
-0.80549669 -0.55540001 -1.1535
-0.80682999 -0.54693252 -1.153775
-0.80664003 -0.53961003 -1.1508501
-0.81301999 -0.52203 -1.1564666
-0.80985999 -0.52158999 -1.1575
-0.81445748 -0.51475501 -1.15545
-0.80896002 -0.51284999 -1.1504
-0.81262004 -0.50462496 -1.15795
-0.80642998 -0.50144804 -1.15486
-0.80411398 -0.49494395 -1.1555533
-0.80173999 -0.48738402 -1.15844
-0.79882997 -0.48877001 -1.1575
-0.70198339 -0.19077332 -1.1589333
-0.69814003 -0.19065 -1.1593
-0.71398687 -0.18341376 -1.1579564
-0.70504278 -0.1844476 -1.1576425
-0.69517756 -0.18328241 -1.1572953
-0.6870755 -0.18274637 -1.1580001
-0.72343004 -0.17278999 -1.15745
-0.71414918 -0.17531501 -1.1545818
-0.70492423 -0.17501786 -1.1529429
-0.69505149 -0.17498915 -1.1539998
-0.6842441 -0.17475221 -1.155449
-0.67940664 -0.17429 -1.1583667
-0.72353667 -0.16588001 -1.1552334
-0.71785998 -0.16998 -1.1506
-0.70326573 -0.16873142 -1.1507571
-0.69394398 -0.16797599 -1.1505201
-0.68339878 -0.16585174 -1.1528234
-0.67866331 -0.16502269 -1.1541734
-0.72812003 -0.15096 -1.15405
-0.68051666 -0.15597333 -1.1545333
-0.67884374 -0.15490875 -1.1548625
-0.73260665 -0.14447333 -1.1568333
-0.72832 -0.14587 -1.151
-0.68100005 -0.14417599 -1.1552401
-0.67886716 -0.14506431 -1.1551143
-0.68105251 -0.1354925 -1.1554625
-0.67898726 -0.13442272 -1.154909
-0.68110776 -0.12526111 -1.1556112
-0.6793077 -0.12483923 -1.1561692
-0.68112385 -0.1146177 -1.1546617
-0.67865175 -0.11563456 -1.1559818
-0.68134999 -0.10603166 -1.1519834
-0.67916846 -0.10544737 -1.1552265
-0.68166995 -0.093311004 -1.1580999
-0.67910701 -0.096248299 -1.1519301
-0.68234664 -0.083794676 -1.1555333
-0.679515 -0.082198501 -1.1521001
-0.76108998 -0.075024001 -1.1583
-0.68203002 -0.079369999 -1.1526
-0.67609394 -0.073035002 -1.15248
-0.76134998 -0.060741 -1.1518
-0.68289 -0.069087997 -1.1568
-0.66197002 -0.060715001 -1.1513
-0.68175501 -0.054769501 -1.15765
-0.66764998 -0.059943002 -1.1573
-0.67862999 -0.0494265 -1.1544499
-0.79533339 -0.5785467 -1.1468667
-0.85329002 -0.56581998 -1.1437
-0.80116999 -0.56737 -1.1497999
-0.84349 -0.55115002 -1.1487
-0.80197001 -0.55378002 -1.148
-0.79762501 -0.55778247 -1.14315
-0.83569998 -0.54294002 -1.149
-0.80478001 -0.54065001 -1.14705
-0.82880998 -0.53685999 -1.145
-0.81182998 -0.53728002 -1.149
-0.80524796 -0.53474003 -1.14587
-0.81002998 -0.52393001 -1.1473
-0.805408 -0.52353203 -1.147
-0.79970998 -0.52074999 -1.1403
-0.81285 -0.51183999 -1.1481
-0.80730146 -0.51276428 -1.1449143
-0.70253998 -0.17331 -1.1488
-0.71306777 -0.16469333 -1.1462889
-0.70584947 -0.16499875 -1.1480125
-0.69526416 -0.16439413 -1.1473274
-0.68488479 -0.16385601 -1.1481121
-0.72237754 -0.15550999 -1.14605
-0.71480691 -0.15546826 -1.1423829
-0.70492738 -0.15561569 -1.1429946
-0.69446856 -0.15516162 -1.1438406
-0.68397361 -0.15552029 -1.1440617
-0.67949694 -0.15428899 -1.14712
-0.72024 -0.14645 -1.1418
-0.71514672 -0.14944667 -1.1409668
-0.70305997 -0.14981668 -1.1408666
-0.69196862 -0.14733 -1.1408571
-0.68341136 -0.14595455 -1.1424772
-0.67857879 -0.14584824 -1.1455883
-0.72323 -0.13474999 -1.1401
-0.68071246 -0.1356775 -1.1460249
-0.67830366 -0.13472787 -1.1444285
-0.68077165 -0.12762167 -1.1474166
-0.67825097 -0.12344499 -1.14333
-0.68075556 -0.11599556 -1.1454222
-0.67903 -0.11469667 -1.1436918
-0.68118221 -0.10527571 -1.1449357
-0.67873496 -0.10292333 -1.1456667
-0.6812467 -0.096938498 -1.1457916
-0.67873836 -0.093376838 -1.1457916
-0.68113804 -0.088522203 -1.14384
-0.67716718 -0.084108055 -1.1442443
-0.68077999 -0.075514339 -1.1411999
-0.67592168 -0.075427823 -1.1446
-0.67728335 -0.068324663 -1.1436666
-0.66100001 -0.068630002 -1.1490999
-0.75641 -0.059269 -1.1443
-0.67690164 -0.051559001 -1.1459166
-0.68002999 -0.047672998 -1.1428
-0.67557526 -0.045206707 -1.1429822
-0.80164999 -0.52024001 -1.1392
-0.7139225 -0.1520225 -1.1395999
-0.70814502 -0.15077001 -1.1392
-0.68355 -0.15086 -1.1399
-0.71467239 -0.1450291 -1.1377
-0.7050733 -0.14459205 -1.1368853
-0.69536453 -0.14509463 -1.1376857
-0.68436062 -0.144034 -1.137455
-0.67916 -0.14268 -1.1393499
-0.72125596 -0.136742 -1.1359199
-0.71380764 -0.13609952 -1.1319809
-0.70567763 -0.1364508 -1.1327081
-0.69446433 -0.13559136 -1.1326216
-0.68413526 -0.13528737 -1.1343237
-0.67896456 -0.13469455 -1.1372454
-0.72302002 -0.12506667 -1.1330667
-0.71916002 -0.127785 -1.13045
-0.69186997 -0.12897 -1.1306
-0.68310821 -0.12626545 -1.1339909
-0.67853379 -0.12501714 -1.134881
-0.68026 -0.116285 -1.1342001
-0.67864472 -0.11523528 -1.1338824
-0.68068224 -0.10609777 -1.1363666
-0.67925447 -0.10466444 -1.1335889
-0.68088996 -0.095435105 -1.1368001
-0.67888385 -0.094412692 -1.1335462
-0.74340999 -0.084000997 -1.1381
-0.68074995 -0.084571667 -1.1351666
-0.6788795 -0.084337547 -1.1354351
-0.74656004 -0.073545665 -1.1348
-0.68077904 -0.074122913 -1.1342454
-0.67677277 -0.074337803 -1.1366432
-0.74817002 -0.064303003 -1.1315
-0.68085003 -0.0682505 -1.1331
-0.67737699 -0.067703292 -1.13518
-0.66680002 -0.066446997 -1.131
-0.65173 -0.060865998 -1.1329
-0.64999002 -0.062111001 -1.1338
-0.67245495 -0.05252225 -1.1345
-0.66086 -0.058894001 -1.1371
-0.65248001 -0.059606999 -1.1303
-0.84943002 -0.56972998 -1.1258
-0.71298009 -0.13161999 -1.12938
-0.70447165 -0.13187166 -1.1288834
-0.69839001 -0.132488 -1.1288599
-0.68630004 -0.13207249 -1.12975
-0.72103 -0.12174 -1.1264
-0.71354276 -0.1249264 -1.1263639
-0.70484978 -0.12503164 -1.1256272
-0.69535899 -0.12461918 -1.1258417
-0.68480539 -0.12395058 -1.1261742
-0.67997998 -0.124815 -1.1287501
-0.72092998 -0.11435572 -1.125343
-0.71435565 -0.11598 -1.122075
-0.70430696 -0.11594706 -1.1213648
-0.69520962 -0.11547334 -1.1218038
-0.68451744 -0.11559998 -1.1242144
-0.67887497 -0.11429 -1.1273334
-0.72180337 -0.10688 -1.1214666
-0.71809006 -0.10677666 -1.1206666
-0.70447999 -0.10927 -1.12025
-0.68169606 -0.105144 -1.1226133
-0.67886817 -0.10542875 -1.1246562
-0.72351998 -0.098982498 -1.12105
-0.68101335 -0.095437326 -1.1248167
-0.67888212 -0.094843507 -1.1244286
-0.68074596 -0.083356 -1.1228201
-0.67887253 -0.085453749 -1.1250149
-0.74198002 -0.075460002 -1.1289001
-0.73698002 -0.072875999 -1.1251
-0.68114501 -0.073943101 -1.1253399
-0.67907542 -0.075841181 -1.1240364
-0.74267995 -0.062112503 -1.1231999
-0.68119627 -0.065344624 -1.12375
-0.67710108 -0.064122669 -1.1247667
-0.66734999 -0.064865999 -1.1221
-0.650666 -0.062234599 -1.1245
-0.64717662 -0.063892446 -1.1228223
-0.68085605 -0.054776002 -1.12242
-0.67719001 -0.055345196 -1.1222284
-0.66560334 -0.053392831 -1.1242666
-0.65315503 -0.058930501 -1.1224501
-0.86706501 -0.59653497 -1.1126
-0.86173999 -0.58951002 -1.1171
-0.85446 -0.57920003 -1.1198
-0.71206498 -0.11265833 -1.1187333
-0.70555818 -0.11348063 -1.1189562
-0.69558775 -0.11381333 -1.1190223
-0.68523502 -0.11115167 -1.1187
-0.72115999 -0.10164001 -1.1184
-0.71379519 -0.10475262 -1.1167086
-0.70521134 -0.10543166 -1.1163234
-0.69546509 -0.10485256 -1.1158513
-0.68520349 -0.10518458 -1.1169858
-0.67956001 -0.10048 -1.1186
-0.72457999 -0.094417334 -1.1168333
-0.71484309 -0.096530743 -1.1125563
-0.70470774 -0.09640912 -1.1111889
-0.6958496 -0.095617212 -1.1125834
-0.68431312 -0.095655978 -1.1127762
-0.67857063 -0.094844379 -1.1152562
-0.72396666 -0.085767992 -1.1115667
-0.69268 -0.088590004 -1.1105
-0.68261665 -0.085766286 -1.1130127
-0.67845356 -0.085399494 -1.1141286
-0.73401999 -0.075894505 -1.1185
-0.72908497 -0.075466499 -1.1127501
-0.68106997 -0.075650714 -1.1153572
-0.67873996 -0.075485185 -1.1156819
-0.73357499 -0.063758999 -1.1129501
-0.68086147 -0.064042211 -1.1154429
-0.67782998 -0.065536499 -1.1150666
-0.66538 -0.061542999 -1.1129501
-0.65362912 -0.062880993 -1.1154457
-0.64718574 -0.065385781 -1.1153643
-0.65706801 -0.058243737 -1.1149933
-0.71385545 -0.092578195 -1.1084365
-0.70543003 -0.092426352 -1.1086214
-0.69167662 -0.091043673 -1.1073999
-0.68885332 -0.093184002 -1.1089667
-0.72175252 -0.084835999 -1.1082
-0.71455717 -0.084699705 -1.1052792
-0.70483249 -0.085011981 -1.1052922
-0.69532037 -0.084890001 -1.1056167
-0.68576515 -0.084113821 -1.1057487
-0.67901993 -0.08321967 -1.1075
-0.72299999 -0.076723337 -1.1033
-0.71626788 -0.076605283 -1.1010501
-0.705064 -0.078176901 -1.10146
-0.6951136 -0.077750929 -1.1015142
-0.6829927 -0.076828994 -1.1026045
-0.67802942 -0.074188113 -1.1054333
-0.72723001 -0.065030999 -1.1069
-0.67896551 -0.065461196 -1.1044247
-0.66147661 -0.062257666 -1.1088666
-0.6567263 -0.062136497 -1.1082751
-0.86886001 -0.60314 -1.0931
-0.86385 -0.59706998 -1.0976
-0.71435702 -0.073683992 -1.09767
-0.70521969 -0.07401 -1.0977583
-0.69504225 -0.073132612 -1.0972782
-0.6860773 -0.073596232 -1.09825
-0.678846 -0.071826205 -1.09816
-0.85474998 -0.59228998 -1.0852
