# .PCD v0.7 - Point Cloud Data file format
VERSION 0.7
FIELDS x y z
SIZE 4 4 4
TYPE F F F
COUNT 1 1 1
WIDTH 632
HEIGHT 1
VIEWPOINT 0 0 0 1 0 0 0
POINTS 632
DATA ascii
0.40386 -0.44227999 -1.4218
0.40147498 -0.44669834 -1.4136666
0.40312663 -0.43355668 -1.4124666
0.39967 -0.44600001 -1.4088
0.40166724 -0.44486368 -1.4046
0.40143752 -0.4354625 -1.4049876
0.40209749 -0.42651999 -1.4049751
0.40242001 -0.41929001 -1.4025
0.402358 -0.45472902 -1.39495
0.40232274 -0.44440547 -1.3944818
0.39968002 -0.43154502 -1.39485
0.40155101 -0.434457 -1.3947799
0.39995 -0.42715999 -1.3933001
0.40112001 -0.42364329 -1.3944334
0.39976999 -0.41729999 -1.3958499
0.40126127 -0.41420749 -1.393625
0.45975 -0.41508999 -1.3933001
0.402675 -0.40713248 -1.3959999
0.40281999 -0.39590001 -1.3924999
0.40860999 -0.36928001 -1.3908
0.42518753 -0.46445951 -1.3859949
0.40381107 -0.45565104 -1.3842367
0.41490248 -0.45784 -1.3821375
0.4255909 -0.45612457 -1.3808001
0.43412113 -0.45559776 -1.3821555
0.44159332 -0.45484504 -1.3847833
0.40303725 -0.44547728 -1.3849001
0.44446 -0.44735333 -1.3831667
0.40229091 -0.43593636 -1.385891
0.44940001 -0.43022999 -1.383
0.40222692 -0.42512691 -1.3857923
0.40166271 -0.41483727 -1.3847543
0.45583999 -0.41106999 -1.3849
0.401292 -0.404641 -1.3851299
0.40124288 -0.39577284 -1.3846999
0.40359998 -0.38603333 -1.3867999
0.40685999 -0.36096001 -1.3815
0.41049999 -0.36603001 -1.3898
0.41955 -0.33028999 -1.3884
0.40726337 -0.45249334 -1.3773446
0.41566309 -0.45257765 -1.3784693
0.4243111 -0.45256889 -1.3791001
0.4345178 -0.45374665 -1.3791445
0.40632454 -0.44465858 -1.3754801
0.41537139 -0.44466144 -1.3736928
0.42526734 -0.44525668 -1.3750199
0.43486053 -0.44478422 -1.3760475
0.44027001 -0.44226998 -1.3764
0.40371001 -0.43567684 -1.3740811
0.41584548 -0.43809363 -1.3709728
0.42556304 -0.43734899 -1.3714499
0.43447426 -0.43760997 -1.3717858
0.44186747 -0.43533498 -1.374225
0.40247461 -0.42490232 -1.3739537
0.44542 -0.42690334 -1.3740667
0.40245599 -0.415198 -1.37525
0.39930001 -0.40836 -1.3758
0.40170452 -0.40485182 -1.3750273
0.45616001 -0.40807 -1.38
0.39976001 -0.39507499 -1.3738999
0.40145701 -0.39541402 -1.3748801
0.39976001 -0.38749 -1.376
0.40141374 -0.38530251 -1.3741875
0.40167776 -0.37595555 -1.3736333
0.40227503 -0.36636502 -1.3714
0.40542999 -0.35146001 -1.3734
0.41359001 -0.33105001 -1.3796
0.41246 -0.32350001 -1.3719
0.41385999 -0.44093001 -1.3699
0.42308 -0.440965 -1.37
0.40721902 -0.43432397 -1.36885
0.41433418 -0.43361834 -1.3682499
0.42422098 -0.43270102 -1.36737
0.43414626 -0.43308747 -1.3687625
0.44058999 -0.43132001 -1.3672
0.40546367 -0.42527494 -1.3650273
0.41493499 -0.42612001 -1.3639554
0.42551613 -0.42602053 -1.3647445
0.43466237 -0.42513663 -1.3646618
0.44187501 -0.42417002 -1.36605
0.40310335 -0.41616085 -1.365075
0.42851001 -0.41863 -1.3606
0.43600333 -0.41852999 -1.3618666
0.44201499 -0.41628 -1.3638999
0.40165415 -0.40567586 -1.3643333
0.44345 -0.40996999 -1.3612
0.40210834 -0.3942425 -1.364875
0.452115 -0.393365 -1.36795
0.39983001 -0.38999999 -1.3686
0.40142003 -0.38448 -1.3656909
0.39989001 -0.37035 -1.3674001
0.40194547 -0.37495545 -1.3647819
0.40188548 -0.36531276 -1.365382
0.4022578 -0.35614443 -1.3631332
0.40403831 -0.34552002 -1.3634833
0.40876001 -0.33375999 -1.3665
0.41657001 -0.42126501 -1.3591499
0.40666169 -0.41430941 -1.3575387
0.41475314 -0.41509867 -1.3563319
0.42450047 -0.41521239 -1.357062
0.4344357 -0.41335425 -1.3568571
0.44268 -0.41084 -1.359
0.40528035 -0.40490517 -1.3544556
0.41511145 -0.40546191 -1.3523524
0.42566299 -0.40569347 -1.35294
0.43522164 -0.40474451 -1.3531833
0.4434 -0.40693 -1.35875
0.40264916 -0.39536667 -1.3551999
0.43762001 -0.39783999 -1.3504
0.441845 -0.39749998 -1.3529
0.40182915 -0.385245 -1.3548417
0.40210551 -0.37501544 -1.3553727
0.40182999 -0.36501083 -1.3542833
0.45765001 -0.36074001 -1.3586
0.40234503 -0.35448167 -1.354025
0.40244445 -0.34515223 -1.3532001
0.40306798 -0.336694 -1.3550601
0.4039233 -0.32765666 -1.3533665
0.40656 -0.40053001 -1.3494
0.41676 -0.40136668 -1.349
0.42564002 -0.40155998 -1.3496332
0.40581 -0.39417952 -1.3470665
0.41437334 -0.39556944 -1.34675
0.42493999 -0.39446071 -1.3466192
0.43432754 -0.39460811 -1.3464439
0.44124502 -0.39280501 -1.348
0.40410185 -0.38439417 -1.3437182
0.41478923 -0.38749921 -1.3414308
0.42570788 -0.38566571 -1.3418
0.43519333 -0.38584667 -1.3428135
0.44226998 -0.3863875 -1.346
0.40269008 -0.37475005 -1.3447787
0.44259 -0.37465501 -1.34075
0.40258753 -0.36458752 -1.3448251
0.45144001 -0.36803001 -1.3482
0.40250441 -0.35558441 -1.347
0.45282999 -0.35655999 -1.3484
0.39989999 -0.34347999 -1.3478
0.402311 -0.34437197 -1.3439699
0.39985001 -0.33519 -1.3432
0.40172625 -0.33518878 -1.3447875
0.40254202 -0.32471296 -1.3430099
0.40296569 -0.31549713 -1.3440001
0.40518665 -0.30436665 -1.3428
0.40992001 -0.28938001 -1.3474
0.41192999 -0.27454001 -1.3431
0.40769503 -0.38353667 -1.3385167
0.41478875 -0.38270125 -1.33875
0.4236843 -0.38323858 -1.3392859
0.43529001 -0.38235998 -1.3386
0.4060767 -0.37487254 -1.3362793
0.41493335 -0.37536907 -1.3350952
0.42466006 -0.37536833 -1.3354459
0.43447 -0.37528396 -1.33617
0.44130003 -0.37485752 -1.3375751
0.40439665 -0.36603999 -1.3342222
0.4145675 -0.36837247 -1.331775
0.42589384 -0.36715999 -1.3317386
0.43614301 -0.36776298 -1.3320601
0.4420675 -0.3639425 -1.33315
0.40220597 -0.3549647 -1.3346933
0.44283 -0.35690999 -1.33075
0.4026857 -0.34522858 -1.3350356
0.45030999 -0.34143001 -1.3343
0.39978001 -0.33230001 -1.3372999
0.40225154 -0.33456308 -1.3346769
0.44909 -0.33945 -1.3319
0.45298001 -0.33342999 -1.3305
0.40224558 -0.32578689 -1.3332188
0.45809999 -0.32139 -1.3334
0.40264833 -0.31502828 -1.3360249
0.40241998 -0.30519626 -1.3338
0.40447998 -0.29659998 -1.3354001
0.40434 -0.28654999 -1.3310499
0.46882999 -0.28312999 -1.3314
0.47648001 -0.27237001 -1.339
0.41399997 -0.25630498 -1.3364
0.40640631 -0.36259091 -1.3282454
0.41457197 -0.36296269 -1.3268399
0.423976 -0.36311001 -1.32857
0.43330252 -0.36319581 -1.328725
0.40566793 -0.35487041 -1.3251874
0.4151125 -0.35493168 -1.3236668
0.42486912 -0.35489216 -1.3240913
0.43485999 -0.35525092 -1.3249857
0.44310999 -0.35629499 -1.32855
0.40533543 -0.34577 -1.3243876
0.41540247 -0.34749252 -1.32065
0.42355004 -0.34827286 -1.3208286
0.43582749 -0.34827751 -1.321
0.44175002 -0.347 -1.3227667
0.40222454 -0.33431271 -1.3239363
0.40348089 -0.32607362 -1.3251637
0.40257612 -0.31504005 -1.3251922
0.40280133 -0.304802 -1.3250133
0.40242079 -0.29442084 -1.3250417
0.40268874 -0.28526002 -1.3241376
0.40298501 -0.27541751 -1.3223499
0.40744001 -0.26254001 -1.3253
0.40459999 -0.35034999 -1.3195
0.42983001 -0.35041001 -1.3197
0.4070814 -0.34236285 -1.3179857
0.41477448 -0.344432 -1.3177501
0.42589688 -0.34442312 -1.3179064
0.43448278 -0.3440578 -1.3180499
0.44088998 -0.34160331 -1.3181667
0.40518078 -0.3349216 -1.314712
0.41535953 -0.33495256 -1.3122522
0.42503861 -0.33579591 -1.3139364
0.43473136 -0.3346945 -1.3138864
0.44178 -0.336142 -1.3169
0.40403333 -0.32569417 -1.314525
0.41743499 -0.32844999 -1.31065
0.42225 -0.32769501 -1.3104
0.43583 -0.327355 -1.3109499
0.44294497 -0.32538334 -1.3123167
0.40294564 -0.31473187 -1.3153814
0.40328753 -0.30567417 -1.3149167
0.45409 -0.30489001 -1.3166
0.40225908 -0.29516548 -1.3147727
0.45831001 -0.29260999 -1.3174
0.40266535 -0.28530401 -1.3139
0.40254334 -0.27556998 -1.3136666
0.40302333 -0.26688167 -1.3156334
0.40252 -0.2577 -1.31125
0.40797502 -0.24795499 -1.3174
0.40896001 -0.23301999 -1.3135999
0.41354668 -0.21551333 -1.3138666
0.40766668 -0.33175668 -1.3092333
0.41119 -0.331655 -1.30975
0.42601001 -0.33089 -1.3096
0.40624648 -0.32454097 -1.3066951
0.41441944 -0.32399943 -1.3061166
0.42485043 -0.32542318 -1.3074092
0.43433836 -0.3240644 -1.3076333
0.44025999 -0.32264 -1.3097
0.40542638 -0.31554362 -1.3044721
0.41551355 -0.316145 -1.3013357
0.4247326 -0.31585321 -1.3022053
0.4355059 -0.31519091 -1.302909
0.44252247 -0.3146275 -1.305275
0.40362856 -0.3043364 -1.30565
0.437388 -0.30809802 -1.30082
0.44507667 -0.30774668 -1.3051
0.4029243 -0.29415289 -1.3058141
0.40312201 -0.28498 -1.3046401
0.403433 -0.27500701 -1.3057601
0.40227732 -0.26525798 -1.3047668
0.40191814 -0.25493181 -1.3038545
0.402886 -0.24499002 -1.3039
0.40465999 -0.23511 -1.3029499
0.40632999 -0.22838999 -1.3023
0.40739831 -0.31246665 -1.2991999
0.41377151 -0.31298769 -1.2989309
0.42550108 -0.31194779 -1.2986332
0.40609255 -0.30481052 -1.2972052
0.41469193 -0.30477542 -1.295823
0.42491353 -0.30505696 -1.2962
0.43436995 -0.30453947 -1.2966446
0.44122335 -0.30577999 -1.2987
0.40460134 -0.29558566 -1.2950871
0.41565129 -0.29837748 -1.2913876
0.42512265 -0.29692 -1.2923068
0.43456993 -0.29601496 -1.29202
0.44174445 -0.29531002 -1.2934778
0.40225697 -0.28460386 -1.2935923
0.43586999 -0.28929999 -1.2903
0.44082001 -0.28929001 -1.2903
0.40294528 -0.27550879 -1.2953823
0.40329763 -0.26525465 -1.2961385
0.40235126 -0.25465751 -1.2944688
0.4022893 -0.24531217 -1.2953999
0.40254444 -0.23614666 -1.2944888
0.40258399 -0.225806 -1.2927201
0.40566999 -0.21623001 -1.29425
0.40649 -0.20956001 -1.2944
0.40780222 -0.29393113 -1.2881223
0.41471112 -0.29328552 -1.2882389
0.42527887 -0.29209667 -1.2887
0.43484503 -0.2910375 -1.289
0.40570727 -0.28508136 -1.2851998
0.41550198 -0.28527126 -1.284608
0.42482045 -0.28458524 -1.2847433
0.43414158 -0.28490719 -1.284676
0.44203597 -0.28305799 -1.2866
0.40434551 -0.27510059 -1.2840167
0.41584498 -0.27867502 -1.2818999
0.42557749 -0.27895999 -1.2831376
0.43593788 -0.27750644 -1.2826786
0.44241199 -0.27593201 -1.28346
0.40365934 -0.26540068 -1.2854401
0.44527501 -0.26842248 -1.283975
0.40263531 -0.25478998 -1.2851466
0.40317813 -0.24439873 -1.2854435
0.40238217 -0.23402108 -1.2849333
0.4022131 -0.22418386 -1.2840538
0.40307501 -0.21621126 -1.2859875
0.40425 -0.204934 -1.2831199
0.40639001 -0.19513501 -1.285125
0.40700001 -0.18664999 -1.2823
0.41506001 -0.16381 -1.2873
0.40635929 -0.27433428 -1.27825
0.41485697 -0.27406925 -1.2777147
0.42501277 -0.2730411 -1.2775445
0.43395847 -0.27215308 -1.2777385
0.44196001 -0.27219999 -1.28
0.40615243 -0.26495934 -1.275152
0.41555658 -0.26470518 -1.273487
0.4256115 -0.26488039 -1.2735963
0.43476394 -0.26467043 -1.2738695
0.4414525 -0.26206249 -1.27415
0.40450957 -0.25595772 -1.2746501
0.41477424 -0.25784287 -1.2703571
0.42549828 -0.25779667 -1.2708167
0.43487 -0.25708002 -1.2701
0.44344664 -0.25537667 -1.2731667
0.40330252 -0.24607332 -1.2747668
0.40314999 -0.23561126 -1.2753375
0.40275115 -0.22486353 -1.2744117
0.45344001 -0.22097999 -1.27195
0.40267283 -0.21457288 -1.2757787
0.40276122 -0.20563294 -1.2740883
0.40319878 -0.195825 -1.27485
0.40329504 -0.18673 -1.270925
0.40739998 -0.17496334 -1.2756332
0.41859502 -0.13480499 -1.2769499
0.42008999 -0.11558 -1.2716
0.42332 -0.10813 -1.2740999
0.42363 -0.096336 -1.2704
0.40942001 -0.26074001 -1.2693
0.41404998 -0.26127499 -1.2688
0.40682873 -0.2534025 -1.2668687
0.41581368 -0.25428373 -1.2675581
0.42470193 -0.25405097 -1.2675383
0.43423429 -0.25467002 -1.2669609
0.40530893 -0.24467701 -1.2644073
0.41518819 -0.24583004 -1.2624863
0.42527661 -0.24542668 -1.2627953
0.43457735 -0.24507387 -1.2633961
0.44233856 -0.24552001 -1.2662143
0.40369648 -0.23499648 -1.2641002
0.43987 -0.23857 -1.2607
0.44554001 -0.23487201 -1.26518
0.40279672 -0.22442584 -1.2645917
0.40303442 -0.21491612 -1.2646612
0.40344071 -0.20493646 -1.2645428
0.40300214 -0.19496368 -1.2654369
0.40274921 -0.18434383 -1.2635231
0.40380666 -0.17491889 -1.265
0.404944 -0.16511999 -1.2652199
0.40630001 -0.156875 -1.26285
0.40685001 -0.14633 -1.2601
0.41003999 -0.13905001 -1.2627
0.42309001 -0.088356003 -1.2646
0.42785999 -0.074353002 -1.2654999
0.40751669 -0.24198 -1.2594333
0.4130725 -0.24186251 -1.2594
0.422575 -0.24281001 -1.2590833
0.43823999 -0.240235 -1.2595
0.40704998 -0.23437811 -1.2572
0.414269 -0.23546483 -1.2558862
0.42503384 -0.23467967 -1.2562354
0.43495128 -0.23432171 -1.2569582
0.44157499 -0.23283499 -1.25755
0.40556392 -0.22544214 -1.2554106
0.41573614 -0.22648335 -1.2518555
0.42560351 -0.22563638 -1.252309
0.43487689 -0.22571473 -1.252279
0.44158 -0.224755 -1.2526
0.40380061 -0.21565998 -1.2548294
0.43109 -0.21797 -1.2507
0.44466338 -0.21533334 -1.2526667
0.40346465 -0.20539533 -1.2537466
0.44591001 -0.20934001 -1.2529
0.40358213 -0.19488713 -1.2548429
0.40333056 -0.18490058 -1.2553333
0.40264538 -0.17543001 -1.25358
0.40321571 -0.16530572 -1.2544357
0.40371856 -0.15584572 -1.2533714
0.40594 -0.14167 -1.25325
0.40913001 -0.13072 -1.2563
0.41527 -0.098624997 -1.252
0.42346001 -0.071106002 -1.2512
0.40729833 -0.22122167 -1.2483166
0.41348308 -0.22304538 -1.248554
0.42434746 -0.22186498 -1.2489749
0.43561372 -0.22161375 -1.2494124
0.44024 -0.22035 -1.2492
0.40658835 -0.21439791 -1.2463626
0.41481346 -0.21466826 -1.245069
0.42451623 -0.21487834 -1.2457875
0.43454355 -0.21443389 -1.2463464
0.4414475 -0.214295 -1.2477
0.40439668 -0.20531003 -1.2442287
0.41664559 -0.20778334 -1.2410556
0.42512387 -0.20702945 -1.2421721
0.43647751 -0.20626165 -1.2427832
0.44243717 -0.20372571 -1.2435857
0.40359443 -0.19562943 -1.2457
0.44315669 -0.19739 -1.2422667
0.40349814 -0.18580624 -1.2443062
0.44764 -0.18952 -1.2444999
0.40310413 -0.17505765 -1.2445292
0.40271857 -0.164915 -1.2446858
0.40331057 -0.15483779 -1.2443666
0.4033162 -0.1458675 -1.2452812
0.40410751 -0.13498999 -1.2433751
0.40461001 -0.12668668 -1.2415334
0.41067001 -0.10418 -1.2416
0.4072533 -0.20302333 -1.2382733
0.41425064 -0.20331942 -1.2379613
0.4252657 -0.20255712 -1.2377214
0.43328923 -0.2031769 -1.2381307
0.40641394 -0.19468357 -1.2354037
0.41480678 -0.19501643 -1.2341394
0.4248316 -0.19528934 -1.2354336
0.43453789 -0.19497429 -1.2355537
0.44266802 -0.19253001 -1.23668
0.40485087 -0.18557261 -1.2339435
0.41501668 -0.18892334 -1.2307833
0.42609665 -0.18733333 -1.2322867
0.43484437 -0.18719436 -1.2318687
0.44224998 -0.18435715 -1.2333715
0.40395552 -0.17490301 -1.2341851
0.44557667 -0.17731667 -1.2321
0.40343398 -0.1644595 -1.2349751
0.44942331 -0.16305999 -1.2321666
0.45076001 -0.16471 -1.2347
0.40338752 -0.15518187 -1.2336187
0.40316769 -0.14468154 -1.2351538
0.40337572 -0.13508072 -1.2345856
0.40328249 -0.12514167 -1.23445
0.40432501 -0.1161475 -1.2348626
0.404165 -0.10696501 -1.2321999
0.41176 -0.090300001 -1.2399
0.41073999 -0.082434997 -1.2332
0.41115999 -0.078729004 -1.2344
0.41624999 -0.065187998 -1.2361
0.41986001 -0.053063001 -1.2394
0.40718573 -0.18335214 -1.2283357
0.41472518 -0.18433705 -1.2278333
0.42491934 -0.18239643 -1.2278215
0.43536916 -0.18257 -1.2287
0.44233 -0.18166 -1.2297
0.40680221 -0.17445631 -1.2251481
0.41511518 -0.17511934 -1.2234414
0.42449152 -0.17469326 -1.2235451
0.43441227 -0.17482999 -1.2244601
0.44145402 -0.17360601 -1.22614
0.40523177 -0.16567738 -1.2242477
0.41512749 -0.16709749 -1.220325
0.42507336 -0.16691999 -1.2204
0.4360275 -0.16695583 -1.2212584
0.44251749 -0.16559 -1.2226
0.40377337 -0.15457268 -1.2245533
0.40273333 -0.14569934 -1.2253799
0.40336853 -0.135277 -1.2251099
0.40333 -0.12479176 -1.2250881
0.40271601 -0.114414 -1.2242868
0.40355921 -0.10525922 -1.2240231
0.40432444 -0.095147662 -1.2228889
0.40863001 -0.088275 -1.2283
0.40757 -0.070653997 -1.2222
0.41451001 -0.054869 -1.223
0.41665 -0.048742 -1.2278
0.42129999 -0.030322 -1.2284
0.40863001 -0.17141999 -1.2194999
0.41095001 -0.17141999 -1.2194999
0.40745813 -0.16348562 -1.2164311
0.41467521 -0.16467476 -1.2167809
0.42421773 -0.1646263 -1.2176669
0.43387768 -0.16444823 -1.2181351
0.44119 -0.16090666 -1.2189666
0.40595943 -0.15491194 -1.2144805
0.41504157 -0.15558344 -1.2122499
0.4254809 -0.15505467 -1.2142873
0.43512267 -0.155278 -1.2144666
0.44243857 -0.15407 -1.2164143
0.40389737 -0.14542176 -1.2145129
0.41143501 -0.149195 -1.21105
0.42162001 -0.14914 -1.2106
0.43577182 -0.14609002 -1.2117727
0.44383112 -0.14557223 -1.2124112
0.40335625 -0.13537125 -1.2147188
0.44662666 -0.13607 -1.2122834
0.40377685 -0.12463473 -1.2151368
0.40357453 -0.1155555 -1.215575
0.40329808 -0.10498812 -1.2151375
0.45839 -0.10535 -1.2136
0.40345126 -0.095171437 -1.214425
0.40342197 -0.086302295 -1.2147
0.40493113 -0.075518109 -1.2140334
0.40536749 -0.067277752 -1.2115
0.40709001 -0.056674 -1.2121
0.40981001 -0.044617001 -1.2135
0.40964001 -0.15202001 -1.2093
0.41426003 -0.15263501 -1.20925
0.42814001 -0.15019999 -1.2096
0.43277001 -0.15019999 -1.2095
0.40604296 -0.143306 -1.20707
0.41438198 -0.1450671 -1.2057387
0.4246577 -0.14477038 -1.2072538
0.43415728 -0.14415862 -1.2078592
0.44235498 -0.14281249 -1.207275
0.40562969 -0.13573657 -1.2045172
0.41578296 -0.13719708 -1.2026412
0.42399761 -0.13658287 -1.202843
0.4345448 -0.13531961 -1.2030959
0.44294667 -0.13423999 -1.2051333
0.40417305 -0.125505 -1.205045
0.42287999 -0.12982 -1.2011
0.43654665 -0.12916332 -1.2007
0.44434878 -0.12541251 -1.20385
0.40425104 -0.11499209 -1.2049527
0.44734001 -0.11525 -1.2004
0.45102999 -0.11175 -1.2033
0.40351748 -0.10511801 -1.2048501
0.40392292 -0.094730355 -1.2055001
0.40324497 -0.084724985 -1.20516
0.40329498 -0.075545631 -1.2036499
0.403927 -0.064406902 -1.2039801
0.40518332 -0.054881498 -1.2032834
0.40725249 -0.044496253 -1.2044749
0.40867999 -0.036982998 -1.2066
0.41326001 -0.022502 -1.2069
0.406367 -0.13187699 -1.19787
0.41350156 -0.13288078 -1.1988385
0.42482764 -0.13234922 -1.198954
0.43589202 -0.132458 -1.199
0.44040999 -0.1331 -1.1987
0.40640068 -0.12491075 -1.1961555
0.41478679 -0.12478178 -1.1954472
0.42547503 -0.12510645 -1.1968822
0.43435687 -0.12409817 -1.1968226
0.44064751 -0.125055 -1.198875
0.40542117 -0.11559241 -1.193336
0.41584164 -0.1164408 -1.191872
0.42562875 -0.11568167 -1.1926501
0.43517187 -0.11571035 -1.1934593
0.44178998 -0.11607376 -1.1951125
0.40375388 -0.10500055 -1.1945277
0.42629999 -0.10951 -1.1913
0.43419498 -0.1088725 -1.1910751
0.44309667 -0.10630667 -1.1913667
0.40366611 -0.095327824 -1.1948832
0.44738501 -0.098061502 -1.1906
0.40427667 -0.084961146 -1.195962
0.40362054 -0.074834563 -1.1943889
0.40352386 -0.065457948 -1.1947333
0.40306151 -0.055459235 -1.1943538
0.40391797 -0.045239903 -1.1929101
0.40487167 -0.035214666 -1.1938167
0.40877497 -0.0158625 -1.1953499
0.40724182 -0.11267271 -1.1879636
0.41445667 -0.11128333 -1.1881778
0.425603 -0.11163 -1.18878
0.43700001 -0.11157 -1.1879667
0.44005999 -0.11019 -1.1865
0.40639207 -0.10465379 -1.186752
0.41514978 -0.10476107 -1.1855675
0.42505473 -0.10430566 -1.1857167
0.4352946 -0.10410962 -1.1864461
0.44150332 -0.10410667 -1.1876832
0.40507111 -0.095500454 -1.1851703
0.41500062 -0.097108625 -1.1815187
0.42494428 -0.095563479 -1.1814381
0.4355 -0.09543556 -1.182292
0.44203442 -0.09475711 -1.1837333
0.40439665 -0.085088052 -1.1842573
0.41782001 -0.089510001 -1.1804
0.42506 -0.089575 -1.1813
0.43595999 -0.089497 -1.1802
0.44507504 -0.086965501 -1.1832333
0.40418592 -0.074784994 -1.185853
0.40419412 -0.06483224 -1.1851441
0.40384334 -0.055271812 -1.1857573
0.40391263 -0.045030583 -1.185558
0.40370184 -0.034721233 -1.1842117
0.40464416 -0.025209917 -1.1857834
0.40685913 -0.092851914 -1.17845
0.41456291 -0.093208179 -1.1785476
0.42541614 -0.092968151 -1.1785769
0.43277669 -0.093493998 -1.1789333
0.40650037 -0.084455207 -1.1754035
0.41486999 -0.084864408 -1.1744875
0.42459205 -0.085122868 -1.1746737
0.43448085 -0.084632978 -1.1752582
0.442 -0.082619667 -1.1768833
0.40542835 -0.075640664 -1.1747401
0.41500297 -0.076889701 -1.1715765
0.42457867 -0.077209622 -1.1718751
0.43516406 -0.077190772 -1.1728728
0.44284001 -0.074880131 -1.1740251
0.40494171 -0.065711275 -1.1745389
0.42778 -0.068745002 -1.1701
0.44451001 -0.069966003 -1.1715
0.40447092 -0.054855362 -1.1752908
0.44904 -0.059558999 -1.1719
0.40403327 -0.045904599 -1.1755534
0.4041709 -0.035145685 -1.1756318
0.45491001 -0.038244002 -1.1708
0.40714332 -0.073134325 -1.1681833
0.41494745 -0.073279314 -1.1686188
0.42427209 -0.07340011 -1.1684999
0.43392667 -0.072221175 -1.1678333
0.44038999 -0.073307 -1.1677999
0.40643734 -0.064360127 -1.1649934
0.41470852 -0.065350041 -1.1635332
0.42479447 -0.064849205 -1.1649138
0.43472001 -0.065167747 -1.1656615
0.44232601 -0.064548403 -1.16763
0.40564176 -0.055410992 -1.1642678
0.41487858 -0.053345431 -1.1605715
0.4249056 -0.056087214 -1.161411
0.43533403 -0.057245094 -1.16117
0.44326749 -0.055983499 -1.1649625
0.4040086 -0.04489395 -1.1650476
0.44496861 -0.046682142 -1.1617143
0.40428886 -0.035797998 -1.1651236
0.44699001 -0.036726002 -1.1604
0.40748 -0.06079933 -1.1598333
0.41229999 -0.060619 -1.15985
0.40729502 -0.053156834 -1.1579417
0.41460735 -0.055300768 -1.1585424
0.42506677 -0.053572681 -1.1575409
0.43492189 -0.053617902 -1.1583667
0.44314998 -0.051995501 -1.1589501
0.40617403 -0.044748887 -1.1561333
0.41474313 -0.045327336 -1.1541966
0.42497495 -0.045078188 -1.1552498
0.43470505 -0.044893313 -1.1553625
0.44143 -0.043595999 -1.1557714
